ply
format ascii 1.0
element vertex 715
property float x
property float y
property float z
property uchar red
property uchar green
property uchar blue
end_header
-0.9830166101455688 -1.0133856534957886 6.282062530517578 108 76 99
-2.70363450050354 1.498199462890625 8.364946365356445 117 129 169
1.2513750791549683 1.237078070640564 4.151222229003906 166 186 255
0.9293580651283264 -0.790349543094635 4.836363792419434 93 63 73
1.0172909498214722 -0.6046289801597595 4.73887825012207 66 49 59
-0.3993753492832184 0.1858057677745819 5.703343391418457 69 28 36
0.7518175840377808 -1.1045204401016235 5.075305461883545 140 127 147
-0.9387433528900146 -1.189117670059204 6.114356517791748 45 21 21
1.262982964515686 0.8147271275520325 4.3152852058410645 95 66 71
0.807126522064209 -1.58041512966156 5.06149435043335 130 116 141
-2.1587893962860107 -1.8658860921859741 8.137232780456543 94 66 80
0.24072283506393433 -0.5274847149848938 5.530069828033447 98 67 82
-0.678167998790741 1.2212859392166138 4.617158889770508 117 78 96
-1.9093016386032104 0.28096839785575867 7.676916122436523 68 51 67
1.1156643629074097 0.8711562156677246 4.46976900100708 127 106 115
-0.697932779788971 0.8428641557693481 4.6298418045043945 125 77 93
1.0645971298217773 -0.8551728129386902 4.701364040374756 97 74 100
-0.5137536525726318 1.0993924140930176 4.822240352630615 80 42 57
0.6073594689369202 0.5452108979225159 5.040557384490967 123 115 138
0.10467037558555603 0.35119253396987915 5.355184555053711 65 25 33
1.2165604829788208 0.2176092565059662 4.429178714752197 103 76 91
0.9686750173568726 -0.4406891465187073 4.774353504180908 81 51 63
0.6677956581115723 0.4830494225025177 4.980658054351807 102 77 98
-1.3659236431121826 -0.2187499701976776 6.774072647094727 53 31 34
-0.028723297640681267 1.179039716720581 4.949527263641357 69 43 52
-1.0907288789749146 -1.327337622642517 6.243756294250488 123 67 78
0.33711889386177063 -0.5302420854568481 5.437248229980469 92 62 74
0.8165665864944458 -0.7684983611106873 4.9623308181762695 64 51 77
-1.1789865493774414 0.9480922818183899 6.083705425262451 81 53 65
1.2725191116333008 0.8740162253379822 4.28834867477417 67 44 52
1.2092877626419067 1.3287893533706665 4.185413360595703 15 22 32
-0.9286161065101624 -1.3244507312774658 6.19615364074707 57 30 37
1.2152042388916016 0.23227190971374512 4.433096885681152 149 126 142
1.2725191116333008 0.8740162253379822 4.28834867477417 67 44 52
-1.5548313856124878 -0.8988932967185974 7.423477649688721 72 49 65
-2.221863031387329 -1.6068565845489502 8.161304473876953 79 51 74
-2.7353296279907227 -0.29572102427482605 8.508627891540527 102 114 152
1.2156994342803955 -0.4954853355884552 4.498484134674072 141 114 129
-0.45453429222106934 0.7948024272918701 5.464112281799316 97 50 66
-0.3993753492832184 0.1858057677745819 5.703343391418457 69 28 36
0.26352939009666443 -1.2392431497573853 5.587356090545654 84 55 60
-0.9026741981506348 1.1274206638336182 4.644814491271973 99 57 79
-1.5311270952224731 1.2963840961456299 4.907984256744385 88 47 63
-2.4277167320251465 0.1168493777513504 8.214612007141113 65 75 111
0.7418130040168762 -0.45275449752807617 5.010492324829102 128 103 124
-1.6533849239349365 -1.7839609384536743 7.613347053527832 100 68 83
-0.6301302313804626 -0.06608794629573822 6.0214762687683105 200 189 159
0.1153905913233757 -1.316527247428894 5.74766731262207 92 65 82
1.0702152252197266 -0.8489788174629211 4.703819274902344 127 106 121
-1.8887008428573608 -1.094556450843811 7.788500785827637 86 64 76
0.7344062328338623 0.7983671426773071 4.895723819732666 122 114 137
0.9159881472587585 -1.3099092245101929 4.900865077972412 69 54 73
-2.4280543327331543 -1.2253670692443848 8.340022087097168 99 111 153
0.9150554537773132 -1.3954583406448364 4.913293838500977 55 43 57
-1.834120750427246 -1.2934893369674683 7.758548736572266 73 49 62
0.7999135851860046 1.0730977058410645 4.788381576538086 131 110 129
0.6259684562683105 1.002659559249878 4.980942726135254 120 116 139
-0.15069659054279327 -1.8443409204483032 6.069139003753662 95 74 93
-1.524567723274231 -0.9006575345993042 7.399635314941406 56 44 54
-0.06695336848497391 0.2097136676311493 5.525887966156006 44 17 22
0.6933059692382812 -0.41176125407218933 5.076834201812744 65 43 55
-0.8280088305473328 0.3115736246109009 5.879691123962402 173 169 160
-0.7459831833839417 0.42377468943595886 5.934503555297852 61 27 28
1.110277771949768 -0.44207313656806946 4.62033224105835 127 109 133
-0.818182647228241 1.105109453201294 4.644023895263672 157 109 131
1.7643227577209473 0.8021677732467651 4.471041679382324 62 70 107
-0.7312535047531128 -0.07476650178432465 6.058969974517822 86 51 29
-0.05459396168589592 0.16891823709011078 5.51537561416626 45 20 26
-1.2766155004501343 -2.2117714881896973 7.266624450683594 83 56 71
-2.1871178150177 0.31440573930740356 7.938178539276123 80 63 81
0.30601856112480164 -1.390303134918213 5.544041633605957 92 65 82
1.0588468313217163 1.1303730010986328 4.498950004577637 74 56 72
0.8845823407173157 -0.04731939733028412 4.822987079620361 142 118 131
-1.1806671619415283 -1.967393398284912 7.156808376312256 76 60 87
-0.9027852416038513 1.059639811515808 4.649804592132568 112 59 79
0.28875550627708435 -1.3376513719558716 5.568798065185547 99 66 83
0.9007924199104309 -0.35613805055618286 4.833104133605957 78 57 66
-0.9403442144393921 -1.2971776723861694 6.181905269622803 137 84 102
1.7631739377975464 0.6750996112823486 4.488347053527832 56 55 86
-3.1484792232513428 1.192531943321228 8.83656120300293 93 107 156
-1.5330415964126587 -1.7993826866149902 7.500818252563477 79 60 80
-1.9486538171768188 -0.11482410877943039 7.747937202453613 61 43 65
-2.207958221435547 -0.0641268715262413 8.008179664611816 126 110 136
1.1850310564041138 1.2234125137329102 4.228440284729004 88 76 88
0.7816720604896545 0.8870994448661804 4.821430683135986 134 117 136
0.4622823894023895 0.42313066124916077 5.199620723724365 77 50 67
-0.6896593570709229 -0.848888635635376 5.870194435119629 61 31 31
1.139710783958435 1.1009228229522705 4.4267706871032715 63 53 62
0.7074342966079712 -1.426090121269226 5.1323394775390625 84 57 76
0.8097467422485352 1.1304891109466553 4.777588844299316 136 114 135
0.7719361782073975 -0.7632337212562561 5.0141730308532715 69 53 79
-1.6533849239349365 -1.7839609384536743 7.613347053527832 100 68 83
0.35558366775512695 -1.7667231559753418 5.537561893463135 52 37 58
-1.9486538171768188 -0.11482410877943039 7.747937202453613 61 43 65
0.12703578174114227 -1.0412896871566772 5.695111274719238 89 61 73
-2.13262939453125 -2.424269914627075 8.163874626159668 94 71 91
0.10467037558555603 0.35119253396987915 5.355184555053711 65 25 33
-0.678167998790741 1.2212859392166138 4.617158889770508 117 78 96
0.9267789721488953 -1.4127899408340454 4.896454811096191 126 103 121
-2.2169008255004883 0.9866153001785278 7.916338920593262 133 123 150
0.5952975749969482 0.1751713752746582 5.0900654792785645 101 67 81
0.4567875266075134 -0.7430380582809448 5.334088325500488 134 120 143
-2.7604706287384033 1.4518942832946777 8.333627700805664 24 29 49
-1.751355767250061 1.1309462785720825 5.233842849731445 73 45 60
-1.5347425937652588 -1.4861098527908325 7.462970733642578 80 60 71
0.6267480850219727 0.5367792844772339 5.027927398681641 125 121 144
1.1811374425888062 1.2519725561141968 4.2172932624816895 15 22 41
1.1410636901855469 0.1365574300289154 4.527748107910156 136 122 139
-2.4202966690063477 0.9260134100914001 8.129433631896973 104 89 108
-0.7845218181610107 -1.0340182781219482 6.081603527069092 108 79 99
-0.14734938740730286 0.31400519609451294 5.609107971191406 63 33 43
-0.6751712560653687 -1.2223294973373413 5.85609769821167 49 24 28
-3.147458076477051 1.6640665531158447 8.774641036987305 111 99 123
-1.7413287162780762 -1.909313678741455 7.751710891723633 88 70 84
-1.524567723274231 -0.9006575345993042 7.399635314941406 56 44 54
1.0172909498214722 -0.6046289801597595 4.73887825012207 66 49 59
0.5806751251220703 0.3279188275337219 5.108661651611328 128 117 134
-1.881842851638794 0.7733621001243591 7.614524841308594 120 111 132
0.896832287311554 1.2621352672576904 4.530458450317383 77 66 83
-2.1644363403320312 -0.40646153688430786 7.995584011077881 126 109 128
-2.741511106491089 -2.3705637454986572 8.701705932617188 106 113 155
-0.6475507616996765 0.128601536154747 6.021238327026367 122 105 85
0.7099655270576477 0.9308072924613953 4.9073076248168945 75 58 77
1.2287838459014893 1.0805338621139526 4.33304500579834 53 39 54
1.114403247833252 -0.07310020178556442 4.5978288650512695 63 53 62
0.8725350499153137 1.2562886476516724 4.566789627075195 120 108 122
0.14203636348247528 -1.2963730096817017 5.713513374328613 75 54 71
1.132547378540039 1.3591026067733765 4.27199649810791 97 85 95
-0.904899001121521 1.0236457586288452 4.650480270385742 104 51 69
-0.3696215748786926 -1.0693209171295166 5.785567283630371 99 70 90
1.2977232933044434 0.8878682255744934 4.269038200378418 128 104 118
-0.6352259516716003 0.1463472545146942 6.038968563079834 154 142 116
1.05740225315094 -0.5949985384941101 4.691478252410889 125 108 127
0.6517730355262756 -1.105498194694519 5.158615589141846 90 67 75
-0.1739770770072937 -0.007936540991067886 5.664307117462158 68 26 36
0.5775657296180725 0.4862196147441864 5.066742420196533 142 120 133
-1.669228196144104 -0.1487407088279724 7.467591285705566 51 38 47
-2.675168514251709 0.9638198614120483 8.348609924316406 141 158 201
0.795470118522644 0.7507615685462952 4.830089569091797 108 81 86
-2.106853723526001 -0.44987353682518005 7.946909427642822 122 107 130
-1.12555730342865 -1.7209720611572266 7.078578948974609 63 45 57
1.1408201456069946 0.7472512125968933 4.4561767578125 128 115 132
0.5339743494987488 0.9561909437179565 5.069473743438721 108 103 125
1.0044983625411987 -1.1986005306243896 4.808937072753906 81 62 81
-0.20041000843048096 -0.3881012201309204 5.707674026489258 55 24 30
0.6861143112182617 -1.4146333932876587 5.14609956741333 134 116 132
0.6855720281600952 -1.2244490385055542 5.138949394226074 91 64 83
0.9710344672203064 0.4936237037181854 4.664743423461914 98 68 78
0.2179442197084427 -1.4439722299575806 5.641346454620361 96 67 87
-1.8814948797225952 0.2714238464832306 7.637563228607178 74 60 73
-2.2298998832702637 -0.42144033312797546 8.058745384216309 136 119 138
-2.119009494781494 -1.7835428714752197 8.09340763092041 85 67 81
0.4091442823410034 -1.6773836612701416 5.467589855194092 104 79 98
-0.8510348200798035 -1.2022110223770142 6.034635543823242 46 22 22
-0.3435792028903961 0.6610637307167053 5.35757303237915 55 40 45
0.9109916090965271 -1.0009167194366455 4.8570780754089355 120 102 114
-2.055752992630005 0.7968478798866272 7.760754108428955 117 127 163
0.9258521795272827 1.1030831336975098 4.641575336456299 50 34 44
-2.18792724609375 -0.41931235790252686 8.032990455627441 133 120 138
-1.9901565313339233 -1.4407950639724731 7.934319496154785 77 60 79
-0.0984020009636879 1.0363349914550781 5.038240432739258 47 38 41
0.5215657949447632 -0.0013961398508399725 5.198429584503174 67 50 66
-0.2723834216594696 -1.0239115953445435 5.655515670776367 127 75 88
0.614215075969696 -1.2634410858154297 5.216405391693115 128 112 141
-2.766294240951538 1.3495665788650513 8.347919464111328 38 48 73
-0.15069659054279327 -1.8443409204483032 6.069139003753662 95 74 93
-1.5370008945465088 -2.1913576126098633 7.551286220550537 82 60 73
-0.7290292978286743 0.695244550704956 5.740959167480469 143 98 118
-0.931649923324585 -0.8674471974372864 6.244151592254639 36 18 18
1.148518443107605 -1.422827959060669 4.676711082458496 45 29 42
1.2521848678588867 0.8696920275688171 4.3161845207214355 134 110 123
-1.135051965713501 -2.210937023162842 7.132952690124512 75 56 78
-0.09600239992141724 -0.770317554473877 5.4995880126953125 110 63 71
0.7783327698707581 -1.4289844036102295 5.063702583312988 83 60 80
1.0506118535995483 0.6134050488471985 4.5809326171875 92 64 87
0.9453855752944946 0.78957599401474 4.670477867126465 131 122 141
1.2981902360916138 -0.15946455299854279 4.38897180557251 131 108 126
-1.872808814048767 -0.13983282446861267 7.679906368255615 131 111 136
0.9194875955581665 -1.184096336364746 4.8994460105896 58 44 67
1.1144514083862305 -1.6362314224243164 4.7276997566223145 118 96 117
-0.9024050831794739 -1.9876965284347534 6.8788161277771 126 117 138
1.7622807025909424 0.767159640789032 4.472136497497559 65 71 105
-0.660537600517273 -0.5264031291007996 6.0389885902404785 47 19 18
0.8842726945877075 -1.3747382164001465 4.942699909210205 99 73 98
0.12111532688140869 -1.5849908590316772 5.763542652130127 58 40 62
0.48237743973731995 -1.59941565990448 5.387184143066406 141 123 139
0.8617967367172241 0.15127280354499817 4.818546295166016 86 61 83
-0.059397220611572266 0.30120420455932617 5.5355000495910645 65 28 35
1.17178213596344 1.3054828643798828 4.227532386779785 159 176 248
1.0442167520523071 0.44152501225471497 4.602081775665283 128 110 132
-0.27908968925476074 1.2593984603881836 5.000511169433594 105 77 92
-1.9150044918060303 0.623533308506012 7.659215450286865 58 45 55
-0.42999130487442017 0.25793078541755676 5.745565891265869 66 29 37
0.2636033892631531 -1.119217038154602 5.57356071472168 67 44 62
-1.291996717453003 1.0777980089187622 4.753042697906494 80 43 60
0.8419228792190552 -0.39570412039756775 4.901406764984131 77 64 84
0.15706174075603485 -1.8399418592453003 5.7501726150512695 136 117 139
-2.718324899673462 0.4400009512901306 8.423377990722656 33 45 85
-0.9239140152931213 -0.6950979232788086 6.298571586608887 59 23 25
0.5201236605644226 0.6716458201408386 5.1215081214904785 129 124 144
0.13882239162921906 -1.3154702186584473 5.715951442718506 132 113 133
0.4567875266075134 -0.7430380582809448 5.334088325500488 134 120 143
1.1194947957992554 -1.0081872940063477 4.663152694702148 58 45 65
0.6306934952735901 0.7890141010284424 4.998481750488281 127 122 144
-2.551048517227173 1.7074882984161377 7.919275283813477 82 88 122
-1.135051965713501 -2.210937023162842 7.132952690124512 75 56 78
-1.9431543350219727 -0.7998944520950317 7.8186869621276855 75 51 64
-0.897923469543457 -0.07017180323600769 6.242386341094971 57 26 34
1.1245068311691284 -1.4103411436080933 4.713127613067627 37 30 48
-0.729072093963623 0.24616485834121704 5.8751115798950195 188 178 166
0.975659191608429 0.2395784556865692 4.679524898529053 92 65 82
0.6481301188468933 0.7804419994354248 4.9809136390686035 74 56 70
0.9702890515327454 0.7902947068214417 4.638560771942139 125 112 138
0.5252334475517273 -0.011605882085859776 5.196442127227783 44 32 46
1.0423470735549927 0.8932319283485413 4.551535129547119 67 47 56
-0.20282191038131714 -1.6480642557144165 6.104114532470703 95 67 90
0.17129957675933838 -1.856967568397522 5.740978240966797 95 64 80
-2.740962505340576 1.0115360021591187 8.378023147583008 99 115 148
0.019678032025694847 0.6287369132041931 4.975854873657227 64 32 43
0.4800339937210083 -1.1044139862060547 5.336955547332764 89 66 82
-2.3551864624023438 -0.9444896578788757 8.242133140563965 86 62 84
-2.7166993618011475 1.5171958208084106 8.329849243164062 19 23 52
1.1097387075424194 -0.09461133182048798 4.582991123199463 128 110 132
-2.7149038314819336 -2.3942391872406006 8.68675708770752 145 158 203
1.1292788982391357 1.242013931274414 4.283052444458008 117 101 112
-2.014209270477295 -1.7708539962768555 7.976775646209717 128 115 132
0.6306934952735901 0.7890141010284424 4.998481750488281 127 122 144
-0.4438536763191223 -0.037208192050457 5.781639099121094 81 37 50
0.931140124797821 -1.6352155208587646 4.919016361236572 81 57 79
-1.3648566007614136 -0.518791139125824 7.216294765472412 68 47 56
-1.7462745904922485 -1.7761001586914062 7.728635311126709 88 66 79
0.8761819005012512 0.9217484593391418 4.727219104766846 63 47 60
-0.11466453969478607 -0.054465558379888535 5.609001636505127 90 41 45
-2.0125784873962402 0.5038328170776367 7.745806694030762 73 61 83
-0.9439482092857361 -0.6091200709342957 6.255728244781494 51 23 22
-0.6679088473320007 0.13440164923667908 6.024392604827881 128 106 82
-0.2793996036052704 -0.9720689654350281 5.668434143066406 73 33 44
-2.1015801429748535 -1.9706732034683228 8.083237648010254 140 116 130
1.2003501653671265 0.7411109805107117 4.400745868682861 141 118 128
-0.818182647228241 1.105109453201294 4.644023895263672 157 109 131
-1.6140639781951904 1.4072563648223877 4.87131929397583 65 71 93
-2.7380568981170654 -1.00416898727417 8.570549011230469 108 120 160
-1.49013352394104 -0.9030607342720032 7.3588385581970215 81 58 74
1.1391379833221436 0.10186398774385452 4.525247573852539 80 55 76
0.2248883843421936 -0.82988440990448 5.568472862243652 111 75 89
-1.5637121200561523 -0.17120033502578735 7.363821029663086 89 62 77
1.2844257354736328 0.2379213273525238 4.3620076179504395 81 54 69
1.17178213596344 1.3054828643798828 4.227532386779785 159 176 248
-0.6647482514381409 0.14412017166614532 6.029447555541992 97 70 51
0.7816720604896545 0.8870994448661804 4.821430683135986 134 117 136
1.8749250173568726 0.2980363965034485 4.523077964782715 124 132 179
0.8690217733383179 0.8614725470542908 4.738595008850098 97 69 91
-1.6610130071640015 -1.8993964195251465 7.642350196838379 82 61 78
-0.9602523446083069 1.081581950187683 4.645501613616943 113 58 77
-0.41532567143440247 -1.0345425605773926 5.7854390144348145 54 20 21
0.25093188881874084 -1.2110360860824585 5.5923309326171875 144 125 145
-0.04926298186182976 -1.6770168542861938 5.952621936798096 94 65 85
-1.9450173377990723 -1.4469847679138184 7.883371353149414 79 58 77
-0.7552689909934998 0.3369946777820587 5.843044281005859 37 23 22
0.7503202557563782 -0.7802246809005737 5.023526191711426 88 56 67
0.824607789516449 -0.7881859540939331 4.95529842376709 59 40 46
0.9356317520141602 -1.2007032632827759 4.8925604820251465 62 51 68
-2.719623565673828 0.9986997842788696 8.380854606628418 23 27 62
0.8171820044517517 1.1010740995407104 4.745825290679932 49 33 44
-0.16795681416988373 0.1568574756383896 5.5239434242248535 92 44 58
-1.0302125215530396 -1.8549178838729858 6.991055488586426 76 63 83
-2.2307991981506348 0.687686562538147 7.94862699508667 79 60 80
-1.0135289430618286 -0.7478799223899841 6.284421920776367 67 28 33
0.7176441550254822 -1.7275400161743164 5.151876926422119 83 65 91
0.12022043019533157 -1.674326777458191 5.761918544769287 88 76 100
-2.208071708679199 -0.4328797459602356 8.067865371704102 73 57 70
-1.1139934062957764 -2.0648093223571777 7.086991786956787 93 70 98
0.14298087358474731 0.407692015171051 5.1508989334106445 144 97 113
0.8503448963165283 0.48167967796325684 4.789774417877197 94 72 85
-1.0499669313430786 0.931695818901062 5.961080074310303 77 54 62
-1.565755009651184 0.7865543365478516 6.589906215667725 129 85 100
0.7503202557563782 -0.7802246809005737 5.023526191711426 88 56 67
-1.0267482995986938 1.083896517753601 4.64097261428833 91 52 71
1.0546011924743652 -0.26240983605384827 4.6677422523498535 59 39 50
-1.609056830406189 1.0574086904525757 5.087012767791748 84 41 58
1.157953143119812 1.3343929052352905 4.24591588973999 153 174 241
1.2799395322799683 -1.483252763748169 4.539623260498047 90 63 82
-0.15906812250614166 0.16293363273143768 5.513551712036133 141 94 104
-2.011164426803589 -1.7429285049438477 7.9681854248046875 72 58 71
-1.9093016386032104 0.28096839785575867 7.676916122436523 68 51 67
1.1069926023483276 0.7233757972717285 4.496824741363525 135 117 133
-0.964038074016571 1.1540817022323608 4.638230323791504 84 49 69
-1.750077724456787 -1.63161039352417 7.698152542114258 74 51 67
-1.8762470483779907 -0.4405593276023865 7.692041873931885 124 110 133
0.49740689992904663 -0.744719922542572 5.291232585906982 79 57 70
0.9382379651069641 0.639751136302948 4.703634262084961 124 117 135
0.9401482939720154 -1.195479393005371 4.8893280029296875 70 57 77
0.5728341937065125 1.112709641456604 5.028141975402832 62 42 53
0.828941822052002 -0.7606915235519409 4.958624362945557 116 115 131
0.6927183866500854 -1.5985307693481445 5.1762895584106445 80 63 82
-0.4402976930141449 0.27668437361717224 5.754383563995361 85 42 52
-0.78920578956604 0.2404196560382843 5.887378692626953 96 86 87
0.6471015810966492 -1.5669535398483276 5.213868141174316 140 116 130
-0.7603355646133423 1.1075658798217773 4.632686138153076 89 46 63
-1.5629216432571411 1.102066993713379 5.034454822540283 95 47 61
-1.2025939226150513 -1.6571928262710571 7.135389804840088 60 46 72
0.030942633748054504 0.37978896498680115 5.420649528503418 66 35 43
-1.5542796850204468 -0.8245322108268738 7.408522605895996 72 55 65
1.1265521049499512 -0.2694513201713562 4.590465068817139 31 21 32
0.030942633748054504 0.37978896498680115 5.420649528503418 66 35 43
-1.135918378829956 0.7389117479324341 6.152059078216553 74 37 55
0.6432717442512512 0.7991121411323547 4.988525867462158 66 50 76
-0.7380875945091248 -0.5507864952087402 6.1167826652526855 58 27 33
-1.6183500289916992 -1.2919684648513794 7.534287452697754 133 116 132
1.1088249683380127 0.4255579113960266 4.531344890594482 143 125 137
0.9632605314254761 0.14316071569919586 4.716518878936768 55 39 50
0.45524975657463074 -1.7262572050094604 5.437186241149902 85 58 75
0.971595048904419 -0.04501346871256828 4.725284099578857 82 55 62
-3.238494634628296 1.6968576908111572 8.169654846191406 17 45 22
-0.16365939378738403 1.262405514717102 5.046864986419678 90 57 68
-1.1640568971633911 -1.7130699157714844 7.107104778289795 88 66 79
0.716002881526947 0.2961130738258362 4.971577167510986 121 116 138
1.0636366605758667 0.8893269300460815 4.536537170410156 77 57 66
0.8515394330024719 -0.3844131827354431 4.889454364776611 67 49 71
1.771068811416626 0.9587169289588928 4.392767429351807 35 44 77
1.0423470735549927 0.8932319283485413 4.551535129547119 67 47 56
0.7142273187637329 0.2836650609970093 4.964766025543213 70 56 73
-0.1151190996170044 -0.19991426169872284 5.623745918273926 67 29 28
-2.0734968185424805 0.98370361328125 7.787051200866699 63 50 68
0.6732966899871826 -0.7427019476890564 5.111570358276367 133 124 145
-1.951355218887329 1.1680270433425903 5.432050704956055 95 51 68
-1.6416456699371338 -0.1600206196308136 7.460319995880127 60 39 54
-0.6880772709846497 -2.01924467086792 6.637921333312988 72 52 64
0.47327977418899536 -1.1415462493896484 5.351865768432617 89 65 79
1.1090483665466309 -1.6271175146102905 4.745273590087891 58 42 55
1.208240270614624 1.2586716413497925 4.195995807647705 16 23 39
-1.1139934062957764 -2.0648093223571777 7.086991786956787 93 70 98
-0.6896593570709229 -0.848888635635376 5.870194435119629 61 31 31
-2.7176268100738525 1.6827024221420288 8.26990032196045 123 111 133
0.24308736622333527 1.350009560585022 4.2013678550720215 170 187 215
-0.8422212600708008 -0.6594468355178833 6.2243146896362305 57 27 37
-1.7503656148910522 -1.3060661554336548 7.6752610206604 72 46 59
-2.0076229572296143 0.7267602682113647 7.724477291107178 164 181 250
-1.5542796850204468 -0.8245322108268738 7.408522605895996 72 55 65
-1.289219617843628 0.45165541768074036 6.77788782119751 52 20 21
-1.0302125215530396 -1.8549178838729858 6.991055488586426 76 63 83
1.1707996129989624 -1.2512905597686768 4.6221537590026855 101 72 92
-0.477895051240921 0.34707725048065186 5.774581432342529 58 21 29
-0.8351083993911743 1.0659903287887573 4.650688171386719 89 48 66
-1.4725825786590576 -0.3506336212158203 7.2877020835876465 86 62 75
0.5000418424606323 0.5507363080978394 5.150425910949707 89 56 65
-2.044009208679199 0.08232183754444122 7.815604209899902 69 54 75
-1.1249336004257202 -2.085057020187378 7.107724189758301 138 118 143
0.668780505657196 -1.3745735883712769 5.1725263595581055 88 65 81
-0.357408344745636 0.748242974281311 5.361844062805176 70 34 46
1.1130598783493042 0.8874304294586182 4.479079246520996 68 49 55
0.35558366775512695 -1.7667231559753418 5.537561893463135 52 37 58
0.5801865458488464 -0.18977674841880798 5.138400554656982 145 128 146
-2.044009208679199 0.08232183754444122 7.815604209899902 69 54 75
0.960420548915863 -0.9765578508377075 4.833740711212158 137 113 126
-0.6851038336753845 -1.3296664953231812 5.936169624328613 135 82 92
-1.6131960153579712 -0.16505810618400574 7.399505615234375 71 47 60
0.9241413474082947 -0.4763282239437103 4.814390182495117 94 64 74
-1.3700664043426514 -0.49499160051345825 7.197309970855713 126 107 127
0.8661887049674988 0.8526490926742554 4.741469383239746 149 131 147
0.5444514751434326 -0.16859066486358643 5.173722743988037 103 74 94
0.4060896635055542 -0.9682033061981201 5.407493591308594 99 61 74
0.6585282683372498 -1.1758674383163452 5.169651508331299 123 114 131
-1.6667492389678955 1.3514409065246582 4.178216934204102 124 135 163
0.8842726945877075 -1.3747382164001465 4.942699909210205 99 73 98
-0.5073055624961853 0.34907659888267517 5.8032660484313965 61 20 28
-2.011164426803589 -1.7429285049438477 7.9681854248046875 72 58 71
0.9973776936531067 0.5038887858390808 4.63156270980835 89 62 71
-1.2573474645614624 -1.1553093194961548 7.149631023406982 79 57 70
-1.1681036949157715 0.6835999488830566 6.312256813049316 106 60 71
-1.6707547903060913 1.1175189018249512 5.1359429359436035 73 40 57
-0.78920578956604 0.2404196560382843 5.887378692626953 96 86 87
-2.7742202281951904 0.7938127517700195 8.407918930053711 30 38 57
-0.48229897022247314 -0.7561752200126648 5.72907018661499 64 27 34
1.1550512313842773 1.0991116762161255 4.414798736572266 99 97 118
-2.7392544746398926 0.7693634629249573 8.398734092712402 98 112 147
1.014292597770691 0.7782027721405029 4.58335018157959 135 114 129
-1.2781412601470947 1.2686656713485718 4.652066230773926 85 50 56
-0.7408912777900696 -0.7457787394523621 6.064711093902588 135 88 106
1.756803274154663 0.9384203553199768 4.399857044219971 121 144 185
-0.7977558970451355 -2.084468126296997 6.78999137878418 123 104 126
-1.0946751832962036 0.44560426473617554 6.591166973114014 54 21 30
-1.1765360832214355 0.2717640697956085 6.579988956451416 81 35 46
-1.2259430885314941 1.2575081586837769 4.581894397735596 82 47 53
-2.0791056156158447 -1.4419431686401367 8.015094757080078 81 68 86
-2.74145245552063 -1.1945840120315552 8.587303161621094 98 104 140
1.101898193359375 -0.11090648919343948 4.589998722076416 82 61 80
-1.677741289138794 -1.773929238319397 7.623804569244385 87 59 74
-1.8310848474502563 0.05315002053976059 7.6084418296813965 51 39 49
-2.796781301498413 1.520176887512207 5.979015827178955 119 137 149
1.1364692449569702 1.2678920030593872 4.273354530334473 117 106 123
0.8230522274971008 0.3709424138069153 4.828553676605225 85 61 83
-0.9252017736434937 1.0058032274246216 4.654695987701416 109 57 79
-1.274317979812622 -0.263334721326828 6.72307825088501 86 44 48
0.19162577390670776 0.0907057672739029 5.118884563446045 49 23 24
-1.9981642961502075 0.631800651550293 7.750175476074219 64 48 61
-1.2443841695785522 1.035883903503418 4.714496612548828 92 44 58
1.200846791267395 0.074272520840168 4.458775043487549 136 113 131
-2.2169008255004883 0.9866153001785278 7.916338920593262 133 123 150
-1.5459606647491455 0.5478515625 6.848875999450684 69 31 42
0.08772183209657669 0.6976448893547058 4.897156238555908 87 47 58
-1.1207294464111328 -1.171931266784668 6.318089008331299 44 23 22
-0.4033062756061554 0.33768877387046814 5.700801372528076 64 21 30
-0.9088330864906311 -1.3067271709442139 6.171548366546631 138 84 98
0.7714808583259583 -0.042253684252500534 4.934159278869629 96 80 93
-1.883089303970337 0.1376161426305771 7.628721237182617 70 50 62
0.14655788242816925 -1.5184732675552368 5.729193210601807 105 71 85
-1.317896842956543 -1.5297033786773682 7.253772735595703 49 31 43
-1.1548447608947754 -0.010582443326711655 6.68351936340332 57 30 37
1.2055237293243408 1.0904181003570557 4.363653182983398 120 116 141
-2.0134589672088623 -1.977929949760437 7.9865922927856445 136 115 130
0.5416571497917175 -0.9408283233642578 5.267396450042725 89 61 76
0.06433824449777603 -1.8384743928909302 5.849100589752197 92 63 83
-3.11535382270813 1.6050697565078735 7.001107692718506 34 61 46
-1.2495064735412598 -1.5457048416137695 7.180071830749512 68 47 66
-1.9942153692245483 0.28892794251441956 7.750747203826904 67 56 72
-0.4402976930141449 0.27668437361717224 5.754383563995361 85 42 52
0.4108738601207733 0.6925586462020874 5.047058582305908 75 38 46
-0.6070445775985718 -1.3493399620056152 5.823415756225586 50 24 33
-1.9888381958007812 0.7817983031272888 7.6884260177612305 22 27 47
-0.9494674205780029 0.49315232038497925 6.253907203674316 130 78 91
-0.729072093963623 0.24616485834121704 5.8751115798950195 188 178 166
-0.5688034296035767 0.8631806969642639 5.4465532302856445 79 56 66
-1.2778339385986328 -1.1372429132461548 7.173336029052734 137 111 124
1.7509665489196777 -1.0071817636489868 4.655676364898682 39 41 56
0.6555938720703125 0.3019717335700989 5.025107383728027 81 65 78
-1.999780535697937 -0.4343372583389282 7.807638645172119 123 107 134
-2.2307991981506348 0.687686562538147 7.94862699508667 79 60 80
-1.1967264413833618 -2.0464940071105957 7.153593063354492 91 66 87
-2.230226755142212 0.05108276754617691 8.019159317016602 64 50 67
-0.413949579000473 0.7411768436431885 5.411865234375 60 29 37
-1.3083289861679077 -0.7214652299880981 6.6498308181762695 51 23 22
-0.8685330152511597 -1.3034744262695312 6.063385486602783 129 76 94
0.22888220846652985 -0.4053665101528168 5.432591438293457 143 109 125
-1.637373447418213 0.8118774890899658 6.673042297363281 48 28 37
-1.4186382293701172 -1.844670295715332 7.372901916503906 79 65 78
0.6106083989143372 -1.006197214126587 5.215518951416016 137 112 131
0.7602524161338806 -0.23353619873523712 4.97027063369751 65 41 55
-1.3078632354736328 -1.1442358493804932 7.202823162078857 54 35 41
-1.5234137773513794 0.8728733062744141 6.542566776275635 74 48 57
-0.21111679077148438 -1.808256983757019 6.12288761138916 102 83 103
-0.7673723101615906 0.013815070502460003 6.016505718231201 187 174 157
-1.7034519910812378 1.316825270652771 5.089221000671387 69 41 53
-0.6351307034492493 -0.5753275156021118 5.986473083496094 124 72 84
-1.8176000118255615 0.6124423742294312 7.546245574951172 54 40 55
-2.051400899887085 0.6516592502593994 7.791223049163818 65 54 71
-0.9027852416038513 1.059639811515808 4.649804592132568 112 59 79
0.5888799428939819 -1.4502060413360596 5.274007320404053 70 52 78
-0.3551204800605774 0.667704701423645 5.375918388366699 71 38 47
1.7498283386230469 0.23467692732810974 4.542518138885498 80 80 106
0.45309925079345703 -1.0763452053070068 5.358885765075684 89 62 77
-3.2210676670074463 1.7094099521636963 8.13240909576416 136 147 149
-1.769150972366333 -0.9203828573226929 7.644964218139648 75 56 76
0.5066148638725281 -1.5681201219558716 5.3759660720825195 131 116 137
-0.15966416895389557 -0.030862467363476753 5.656798362731934 57 27 35
-0.028856221586465836 0.9553332924842834 4.97006368637085 63 31 42
-1.24655282497406 -0.3573687672615051 6.651077747344971 100 73 82
-0.9978808164596558 -1.8730796575546265 6.937332630157471 76 58 74
0.7063995599746704 1.1361695528030396 4.88945198059082 120 116 139
1.1145238876342773 0.15677732229232788 4.557568073272705 150 142 165
0.7625384330749512 0.15518818795681 4.920992851257324 134 120 137
-1.4960640668869019 -0.6868563294410706 7.3374247550964355 61 40 59
-0.16795681416988373 0.1568574756383896 5.5239434242248535 92 44 58
0.7282421588897705 -1.1020660400390625 5.07708215713501 82 58 80
0.2756878137588501 -1.7311710119247437 5.6148858070373535 80 54 63
0.5834013223648071 -1.4091130495071411 5.273283004760742 81 56 78
-0.9330497980117798 0.07998437434434891 6.26795768737793 59 22 30
-0.617222011089325 -0.0226670540869236 5.971105098724365 170 155 132
-3.3641610145568848 -1.891327142715454 9.030302047729492 166 172 222
0.07598717510700226 -1.674146056175232 5.82568359375 131 119 141
-1.5364750623703003 -0.02621302753686905 6.89366340637207 157 104 122
0.991428017616272 0.2688599228858948 4.6575727462768555 84 63 82
-0.5446943640708923 0.7109266519546509 5.562714576721191 73 41 54
1.0977107286453247 0.47269177436828613 4.531760215759277 91 65 78
0.8500179052352905 -1.0045629739761353 4.944856643676758 70 59 76
-0.8102788925170898 0.3462425470352173 5.893699645996094 61 41 32
-0.589033305644989 -0.4908708930015564 5.965291500091553 52 22 30
-0.3117450475692749 1.0309091806411743 5.031298637390137 75 38 55
0.8686429262161255 0.8729983568191528 4.744961738586426 139 125 140
-0.45302754640579224 -1.2732985019683838 5.6396098136901855 105 58 66
-0.4438536763191223 -0.037208192050457 5.781639099121094 81 37 50
-2.7344601154327393 1.5661203861236572 8.331114768981934 70 75 97
0.053238529711961746 0.30224668979644775 5.436081886291504 83 42 48
-0.7169659733772278 -0.684182345867157 6.110491752624512 65 31 30
-0.20943811535835266 -1.7120596170425415 6.118198871612549 78 58 83
-1.669228196144104 -0.1487407088279724 7.467591285705566 51 38 47
-0.8951274156570435 -0.8381282091140747 6.224347114562988 51 22 24
0.6903980374336243 -1.6036298274993896 5.178507328033447 65 46 68
-0.6203837990760803 -0.4939729869365692 5.987631797790527 49 20 22
-1.074710488319397 -1.9598743915557861 7.036897659301758 138 125 145
0.6927183866500854 -1.5985307693481445 5.1762895584106445 80 63 82
-1.759004831314087 0.4744897186756134 7.4699931144714355 42 32 40
1.019147276878357 1.051171064376831 4.544937610626221 95 72 90
0.7606092095375061 -0.48169559240341187 4.994216442108154 65 47 61
-2.2170989513397217 -1.5604095458984375 8.14437198638916 62 49 66
0.44061800837516785 0.20671698451042175 5.255069255828857 116 102 127
-1.2938446998596191 -1.832605004310608 7.244598388671875 82 60 73
-1.5354580879211426 0.2215331643819809 6.987449645996094 107 60 68
-0.4799959659576416 0.26230868697166443 5.78700590133667 70 40 52
-1.5015449523925781 -1.6558202505111694 7.440945625305176 80 56 70
-0.7946361303329468 -1.3389458656311035 6.067069053649902 79 43 47
0.75067138671875 -0.02614174410700798 4.9559831619262695 84 63 78
-2.0988032817840576 -1.7758214473724365 8.104318618774414 132 111 130
-0.8035475611686707 -0.6899840235710144 6.1958327293396 60 30 40
-0.14803463220596313 -0.3824934959411621 5.645385265350342 61 29 34
1.0138124227523804 0.16027608513832092 4.652468204498291 95 73 96
1.0841940641403198 -0.5957183837890625 4.6536431312561035 129 104 125
-2.1842799186706543 0.05209502950310707 7.9705915451049805 65 57 81
-1.3882951736450195 0.4068787395954132 6.882113456726074 56 24 27
1.675377368927002 -1.576451301574707 4.738341331481934 61 54 85
-1.5312858819961548 -0.5132505893707275 7.364272594451904 54 41 58
1.2445393800735474 -0.4946644902229309 4.480171203613281 137 113 129
0.36785516142845154 -0.916100025177002 5.450300216674805 129 119 143
1.0573582649230957 -0.452056884765625 4.68594217300415 73 50 60
-0.4824821650981903 0.03135509043931961 5.804973125457764 60 22 33
0.595729649066925 1.094443917274475 4.9982171058654785 96 81 102
-0.5311152338981628 -0.849456787109375 5.755349636077881 65 30 36
-0.08743789792060852 1.1467385292053223 5.017875671386719 61 35 46
1.764279842376709 -1.619655728340149 4.73854923248291 56 60 97
-0.5658981800079346 0.6933098435401917 5.575101852416992 71 39 54
-0.23482702672481537 0.2181376963853836 5.694607734680176 75 39 51
-1.2421228885650635 0.8633456826210022 4.708845138549805 106 63 70
0.9387243390083313 0.27328014373779297 4.704488277435303 84 61 77
-0.6688261032104492 0.11041823774576187 6.052199840545654 70 39 19
0.6537585854530334 0.7064167857170105 4.969773292541504 144 127 146
-1.4932938814163208 -0.8327518105506897 7.369443893432617 73 52 67
-0.11156025528907776 -0.9136543869972229 5.435610294342041 159 108 125
0.7370900511741638 -0.760565996170044 5.034284591674805 55 34 51
-0.11617932468652725 0.22072188556194305 5.58474588394165 82 34 30
1.90007483959198 -0.0015817158855497837 4.563603401184082 116 120 168
0.45569315552711487 -0.8633658289909363 5.343256950378418 89 65 87
-2.012458324432373 0.8079731464385986 7.709207057952881 161 176 243
-0.9304692149162292 0.49510666728019714 6.230743885040283 57 24 33
-1.4213776588439941 -0.3585357666015625 7.237631797790527 68 48 60
-0.27206793427467346 -1.8106776475906372 6.192993640899658 139 118 137
0.5802978277206421 0.6272019147872925 5.056865692138672 137 106 121
0.21331612765789032 -1.390868902206421 5.647838115692139 73 59 76
-1.5234137773513794 0.8728733062744141 6.542566776275635 74 48 57
0.382455050945282 -0.55746990442276 5.39263916015625 70 57 74
0.5968257188796997 0.6642679572105408 5.042644023895264 124 116 137
1.0358442068099976 0.8793702125549316 4.55777645111084 126 108 122
-2.7090041637420654 -1.776892066001892 8.63369369506836 146 156 205
1.267569661140442 1.1989924907684326 4.148622512817383 134 126 141
-0.5055274963378906 -0.15804535150527954 5.816192626953125 55 23 28
-0.45302754640579224 -1.2732985019683838 5.6396098136901855 105 58 66
0.2396741509437561 -1.8576042652130127 5.665301322937012 96 68 93
-0.07245638221502304 0.10856692492961884 5.521562099456787 142 88 104
-2.6763699054718018 1.690053939819336 7.891909599304199 130 138 149
0.5213825702667236 0.8582508563995361 5.068728923797607 73 40 47
-0.3406941890716553 1.364023208618164 4.350453853607178 127 134 153
-1.0938973426818848 -2.030015707015991 7.045295238494873 94 70 96
1.1640609502792358 0.5945183634757996 4.450887680053711 70 49 64
-0.6070445775985718 -1.3493399620056152 5.823415756225586 50 24 33
0.5727594494819641 -0.9353996515274048 5.231235027313232 137 120 139
-0.7024248242378235 -1.345491647720337 5.974124908447266 55 24 32
-1.4718977212905884 -2.0235185623168945 7.459526062011719 87 60 79
-0.6326298713684082 -1.3551268577575684 5.845980644226074 49 22 27
-0.7373569011688232 -0.2875770330429077 6.065680503845215 60 28 33
-0.6928830742835999 -1.067563533782959 5.98588752746582 74 38 50
-1.0002886056900024 1.3202232122421265 4.77686071395874 99 56 66
-1.831967830657959 -0.3214107155799866 7.643328666687012 120 104 130
0.2873486578464508 -0.8759741187095642 5.510733127593994 134 125 146
-0.7860532999038696 -0.14767007529735565 6.136031627655029 145 119 106
0.5641833543777466 1.1526901721954346 5.039833068847656 117 101 128
-0.4752228260040283 -0.7031389474868774 5.717418193817139 143 91 103
-1.1158195734024048 -0.4344852566719055 6.648051738739014 58 28 38
0.14655788242816925 -1.5184732675552368 5.729193210601807 105 71 85
-0.9790313839912415 -0.7839662432670593 6.2632365226745605 54 22 27
-0.3406941890716553 1.364023208618164 4.350453853607178 127 134 153
0.0391010083258152 0.5547508001327515 5.088127136230469 88 56 59
-0.4797036945819855 0.12323170155286789 5.795772075653076 63 26 33
1.0644727945327759 -1.538483738899231 4.754821300506592 138 118 130
-0.44066739082336426 -0.1260010451078415 5.769316673278809 60 27 36
-0.4799959659576416 0.26230868697166443 5.78700590133667 70 40 52
-1.076836109161377 0.23154817521572113 6.571829319000244 52 23 28
-1.1777070760726929 -0.9503291249275208 6.572134494781494 60 29 35
-0.8507799506187439 0.762229859828949 4.76558780670166 52 40 50
-0.6400440335273743 -0.5092134475708008 6.017737865447998 113 68 73
-0.9330497980117798 0.07998437434434891 6.26795768737793 59 22 30
-1.023274540901184 -0.7603083252906799 6.270191669464111 132 86 99
0.9201528429985046 0.645639181137085 4.706331729888916 127 115 139
0.5061405897140503 -1.593711495399475 5.3564863204956055 91 67 80
1.2935817241668701 1.351148247718811 4.099146842956543 86 79 86
1.716179609298706 -1.5185730457305908 4.722485542297363 63 68 88
-0.43764787912368774 -0.1764029562473297 5.751364707946777 112 78 94
-1.2686976194381714 0.25016269087791443 6.7885003089904785 77 34 44
-0.5688034296035767 0.8631806969642639 5.4465532302856445 79 56 66
1.885806918144226 -0.6139055490493774 4.554290771484375 122 129 175
1.7628576755523682 0.004232150502502918 4.5593414306640625 71 74 109
-2.661339044570923 1.6563026905059814 7.456854820251465 35 65 37
-1.5015449523925781 -1.6558202505111694 7.440945625305176 80 56 70
0.07749135792255402 -0.11071553826332092 5.252769470214844 135 88 108
-0.3254004716873169 -0.900739312171936 5.756165504455566 25 16 19
0.7108901739120483 -0.7475987672805786 5.060440540313721 131 114 133
-2.7371060848236084 0.8113524317741394 8.396496772766113 85 98 132
-0.8035475611686707 -0.6899840235710144 6.1958327293396 60 30 40
-1.441367745399475 0.7413092255592346 6.490477085113525 134 87 105
1.7103664875030518 -1.5805182456970215 4.746116638183594 155 164 197
-0.9876541495323181 -1.8604618310928345 6.94766902923584 127 110 129
0.25025370717048645 -1.1225053071975708 5.593413829803467 89 58 73
-2.904726266860962 1.5436387062072754 8.391274452209473 130 148 188
-0.47662219405174255 0.19421827793121338 5.791631698608398 77 41 45
1.7568395137786865 -1.6539324522018433 4.73529577255249 59 62 95
-0.8316570520401001 1.1241223812103271 4.644616603851318 90 53 70
0.5858858823776245 -0.28860950469970703 5.149451732635498 67 47 59
-1.2290489673614502 1.0129637718200684 4.700438976287842 84 38 49
-0.6863890886306763 0.13609185814857483 6.024614334106445 116 95 68
-0.20086532831192017 -0.8985341191291809 5.440199375152588 141 91 102
0.22816404700279236 0.6954058408737183 4.865281581878662 72 40 43
-0.9059010148048401 -1.9080603122711182 6.858527183532715 53 40 66
0.9226678013801575 0.7040908336639404 4.675952434539795 78 71 89
-1.6038414239883423 -1.6046956777572632 7.548486232757568 138 121 139
1.24370276927948 1.2823625802993774 4.144317626953125 159 177 251
-0.5598356127738953 -2.002535581588745 6.383427619934082 65 102 120
-1.9888381958007812 0.7817983031272888 7.6884260177612305 22 27 47
-0.19195514917373657 0.7315210700035095 5.18674373626709 92 48 63
1.3429503440856934 1.1850730180740356 4.091444969177246 141 132 153
-1.3882951736450195 0.4068787395954132 6.882113456726074 56 24 27
-1.2421228885650635 0.8633456826210022 4.708845138549805 106 63 70
-0.6410045623779297 -1.9840514659881592 6.497828006744385 173 157 141
-0.9746807813644409 0.1774345338344574 6.304830074310303 63 27 37
1.6076427698135376 -0.4223245680332184 4.6359429359436035 20 20 22
-0.6102067828178406 0.1033601462841034 6.027826309204102 89 72 52
-2.331542730331421 -0.9511387348175049 8.204437255859375 93 68 89
-0.863420844078064 -1.4556784629821777 6.052700519561768 40 21 23
-0.3923962712287903 0.6224109530448914 5.521191596984863 156 108 130
0.15617908537387848 -1.4975659847259521 5.707704067230225 94 66 89
-1.53126859664917 1.119659423828125 5.008825302124023 81 48 65
-1.9663052558898926 0.9686274528503418 7.669568061828613 46 37 54
-0.6688261032104492 0.11041823774576187 6.052199840545654 70 39 19
0.18739701807498932 -0.9031040668487549 5.624708652496338 87 59 82
1.7165615558624268 1.1451064348220825 4.409350872039795 74 82 103
0.7049792408943176 0.41315826773643494 4.948301792144775 72 51 66
1.5184537172317505 1.191040277481079 4.272839069366455 141 132 151
-0.21257954835891724 -1.6772962808609009 6.115267276763916 67 41 68
1.253838300704956 -0.0900774598121643 4.427944183349609 139 116 134
-1.609056830406189 1.0574086904525757 5.087012767791748 84 41 58
0.11630260944366455 -0.10364455729722977 5.055993556976318 60 20 28
-0.4076496958732605 0.022518156096339226 5.731320858001709 61 22 27
-1.930983066558838 -2.299685001373291 7.950761318206787 83 61 82
-1.541454553604126 0.7445441484451294 6.5860795974731445 132 87 108
-0.19643482565879822 0.8191153407096863 5.074182033538818 90 53 60
0.5154213309288025 -0.5554094910621643 5.254944801330566 76 54 67
1.75083589553833 0.9867172241210938 4.36417818069458 154 176 217
-0.6061801910400391 -1.9027087688446045 6.532787322998047 55 38 57
-0.4942677617073059 -1.0082396268844604 5.7077717781066895 114 68 81
1.885806918144226 -0.6139055490493774 4.554290771484375 122 129 175
0.9085515141487122 -0.43368008732795715 4.83119010925293 83 57 66
1.90007483959198 -0.0015817158855497837 4.563603401184082 116 120 168
0.9128937721252441 -1.5431079864501953 4.928060054779053 84 59 80
0.16587233543395996 1.2700692415237427 4.66569709777832 143 110 127
-0.571128785610199 -0.8072851300239563 5.7981085777282715 137 87 98
-0.1151190996170044 -0.19991426169872284 5.623745918273926 67 29 28
-1.2691115140914917 -1.201137900352478 6.4337358474731445 131 85 96
1.8965283632278442 -0.1523832529783249 4.58631706237793 111 119 168
-0.657575786113739 0.17079795897006989 6.02089262008667 148 131 105
-0.9423190951347351 -1.9900106191635132 6.882261276245117 110 102 123
-0.655021071434021 -1.9969477653503418 6.520440578460693 40 26 43
-0.23482702672481537 0.2181376963853836 5.694607734680176 75 39 51
-1.7496013641357422 -0.4743521511554718 7.595220565795898 69 53 79
1.6042951345443726 1.220650553703308 4.247400760650635 64 56 69
-0.1288308948278427 -0.7158476114273071 5.446169376373291 60 26 27
-2.0125954151153564 0.7644254565238953 7.717170715332031 164 179 246
-2.0904550552368164 -0.6225799322128296 7.9571051597595215 64 50 73
-1.253494381904602 -1.2174649238586426 6.413529872894287 72 33 34
-0.21320132911205292 -1.81574547290802 6.179962158203125 94 66 88
-0.5076391100883484 -0.7997041940689087 5.782383918762207 70 31 36
0.5481945276260376 -1.5586377382278442 5.346528053283691 90 60 72
-0.6326298713684082 -1.3551268577575684 5.845980644226074 49 22 27
-0.5076391100883484 -0.7997041940689087 5.782383918762207 70 31 36
-0.1879732608795166 -0.8893750309944153 5.444688320159912 58 29 33
1.7586666345596313 0.9027142524719238 4.432068824768066 69 75 107
0.15948761999607086 1.2313144207000732 4.66530179977417 172 126 152
-2.661339044570923 1.6563026905059814 7.456854820251465 35 65 37
-0.7610998153686523 0.20039713382720947 5.975310802459717 156 145 159
-0.6711031794548035 -1.6757186651229858 6.049222946166992 104 48 59
0.5000418424606323 0.5507363080978394 5.150425910949707 89 56 65
0.851138710975647 -0.006814831402152777 4.842270374298096 77 54 72
-0.7697925567626953 -0.15961579978466034 6.129680156707764 148 131 115
2.959460735321045 -1.7573096752166748 5.4887495040893555 35 35 69
-3.1722328662872314 1.6373722553253174 7.37746000289917 30 54 40
0.5716938376426697 1.0649477243423462 5.041975498199463 57 39 55
-0.6642360091209412 0.7802022099494934 5.664202690124512 83 45 58
1.1664748191833496 -0.8382326364517212 4.583801746368408 95 67 89
0.6348493695259094 1.0420953035354614 4.9608893394470215 77 54 74
1.7714893817901611 0.970770537853241 4.447549819946289 25 49 85
-2.7534682750701904 0.45885008573532104 8.433438301086426 36 41 71
-1.3395183086395264 -0.780286431312561 6.6575446128845215 135 83 95
0.8500179052352905 -1.0045629739761353 4.944856643676758 70 59 76
0.4450499713420868 0.8798255920410156 5.021609783172607 96 59 67
0.1331980675458908 0.6782663464546204 4.861673355102539 62 32 42
-0.4942677617073059 -1.0082396268844604 5.7077717781066895 114 68 81
-2.0734968185424805 0.98370361328125 7.787051200866699 63 50 68
-2.1538283824920654 -0.9806506633758545 8.047259330749512 72 49 67
-1.5194569826126099 0.8622393012046814 6.538755893707275 55 32 38
-1.8406033515930176 0.48660606145858765 7.582840442657471 60 52 65
-0.5737321972846985 -1.9599565267562866 6.412344455718994 38 27 41
-1.0598267316818237 -0.8276453018188477 6.291775226593018 64 31 38
-0.6859789490699768 0.019589513540267944 5.987933158874512 159 149 139
-0.24478848278522491 -1.0992714166641235 5.726564884185791 75 31 46
-1.5569335222244263 0.17660650610923767 6.908177375793457 44 18 19
1.1021090745925903 -0.4684554636478424 4.627782344818115 67 51 64
-1.687016248703003 0.7437809705734253 6.896196365356445 77 56 55
0.21366244554519653 0.178651362657547 5.0744218826293945 143 94 113
-1.1331191062927246 0.34008756279945374 6.63374662399292 53 19 20
-0.5335033535957336 -0.8978017568588257 5.762714385986328 69 27 39
-0.8422212600708008 -0.6594468355178833 6.2243146896362305 57 27 37
-1.7149053812026978 1.0068790912628174 5.212090492248535 69 38 53
-0.5179375410079956 0.19259794056415558 5.829537868499756 67 19 31
-0.668692409992218 0.2955184280872345 5.879552841186523 105 90 87
0.13211429119110107 -0.13280931115150452 5.033893585205078 164 113 128
-0.438077837228775 1.0297794342041016 4.9013752937316895 106 57 78
1.1065478324890137 -0.12129443138837814 4.593467712402344 79 56 82
-2.7377398014068604 0.5831390023231506 8.421695709228516 95 107 145
-0.5655389428138733 -0.3605729341506958 5.919261932373047 111 66 73
